2120.0 250 0.0
2048.8604507623486 250 407.5436826916919
1962.320127053973 250 812.8196103434507
1848.356948148558 250 1235.0326280025756
1287.641448540703 250 1287.641448540703
794.4654332180313 250 1189.0015455926398
463.0469531617587 250 1117.894234338657
215.76989614983793 250 1084.7485201259728
6.349793653579026e-14 250 1037.0
-197.821586524354 250 994.5162743288756
-393.3985684713122 250 949.7481594216027
-594.4601493309744 250 889.6724851637233
-683.0651506262049 250 683.065150626205
-611.9616346546734 250 408.89969150242723
-582.0441054821107 250 241.09056239000662
-544.3358306237928 250 108.27512871895114
-517.0 250 6.331423951591816e-14
-493.3349960428249 250 -98.13043197411257
-479.49347737335785 250 -198.61270139748154
-448.99359064337443 250 -300.00792583058524
-423.5569619307421 250 -423.5569619307419
-378.89889891936866 250 -567.0622755903358
-321.83676661904025 250 -776.9826868419923
-229.23112836895118 250 -1152.4227044737956
-2.1529290729010467e-13 250 -1172.0
223.3784187084669 250 -1122.9991460616989
444.67814840823456 250 -1073.548016778115
687.2403782452475 250 -1028.5279104182487
975.8073580374354 250 -975.8073580374358
1302.0814128657858 250 -870.022984908697
1920.7455480909653 250 -795.5988558870212
2218.536304272107 250 -441.29430840048315
2145.0 250 -5.253734768342145e-13
2118.0 500 0.0
2051.802806603558 500 408.1289536577403
1966.9395247165294 500 814.7330275052761
1859.166053108491 500 1242.2550410318304
1436.8409793710646 500 1436.8409793710646
822.799515102031 500 1231.4064958200695
491.74821058914046 500 1187.1851992770034
224.3538703185476 500 1127.903072463715
6.619215949391444e-14 500 1081.0
-206.99083165911202 500 1040.6131825078276
-411.00200636010635 500 992.246617917122
-615.5718181857193 500 921.26833043122
-669.6301217836605 500 669.6301217836606
-626.0966180638167 500 418.34438546376043
-579.2724668845768 500 239.94251209291136
-542.3742600629864 500 107.88494807491888
-517.0 500 6.331423951591816e-14
-490.3926402016152 500 -97.54516100806418
-473.9502001782902 500 -196.316600803291
-452.3194690925846 500 -302.23020676266367
-425.6782822743017 500 -425.6782822743016
-381.1211798514471 500 -570.3881540395461
-323.3675034850064 500 -780.6782049720374
-221.23242516628991 500 -1112.2105079772632
-2.0794502649522056e-13 500 -1132.0
216.94043808193467 500 -1090.6332318083923
431.2842282754564 500 -1041.21223314022
667.2398498565418 500 -998.5950043753571
930.5525240414963 500 -930.5525240414968
1270.4855675982892 500 -848.9113160539521
1717.4920509384822 500 -711.4085007667015
2213.6323778700907 500 -440.31885679040255
2150.0 500 -5.265981236333618e-13
2141.0 750 0.0
2096.9189295021065 750 417.1031084704822
1978.0260791066648 750 819.3252286936572
1864.986340394609 750 1246.1440326629677
1521.6937931134503 750 1521.6937931134503
860.0227207143444 750 1287.11495984434
501.6979798306328 750 1211.2060671222969
233.13293480927337 750 1172.0384100818603
6.870268543216652e-14 750 1122.0
-214.20917357370877 750 1076.902237882747
-424.0132430605194 750 1023.6585220225057
-636.1279168074446 750 952.0327060864141
-688.7220048756973 750 688.7220048756973
-616.1189827161861 750 411.6775426675252
-582.967985014622 750 241.47324582237172
-542.3742600629864 750 107.88494807491888
-518.0 750 6.34367041958329e-14
-489.411854921212 750 -97.35007068604806
-477.6457183083353 750 -197.84733453275135
-452.3194690925846 750 -302.23020676266367
-424.97117549311514 750 -424.971175493115
-377.7877584533295 750 -565.3993363657307
-319.15798259248464 750 -770.5155301144132
-215.57480582782216 750 -1083.7677348455695
-2.0151563079969695e-13 750 -1097.0
209.33191552330567 750 -1052.3826058726663
416.3595744132179 750 -1005.1809313722798
641.6836191376401 750 -960.34740220944
894.4900782009825 750 -894.4900782009828
1216.4400427986236 750 -812.799250907678
1701.7860988857904 750 -704.902882416495
2201.862954505252 750 -437.97777292620896
2154.0 750 -5.275778410726797e-13
2132.0 1000 0.0
2070.4377269312195 1000 411.83566977604676
1972.482801911597 1000 817.0291280994667
1862.4919315577013 1000 1244.477321963909
1529.4719677065025 1000 1529.4719677065025
871.689695607756 1000 1304.5758217026935
518.1533674223316 1000 1250.9328870202824
235.27892835145076 1000 1182.827048166296
6.943747351165493e-14 1000 1134.0
-215.9649864718539 1000 1085.7293054063762
-428.2227608165354 1000 1033.82119688013
-642.7947596036798 1000 962.0103414340447
-678.8225099390855 1000 678.8225099390856
-611.9616346546734 1000 408.89969150242723
-581.1202259495993 1000 240.70787895764155
-545.3166159041962 1000 108.47021904096727
-521.0 1000 6.38040982355771e-14
-491.37342548201843 1000 -97.74025133008031
-474.8740797108014 1000 -196.69928423565608
-448.99359064337443 1000 -300.00792583058524
-422.142748368369 1000 -422.1427483683688
-379.4544691523883 1000 -567.8937452026383
-320.3060328895799 1000 -773.2871687119471
-213.0386316416125 1000 -1071.0175262003274
-1.985764784817433e-13 1000 -1081.0
206.60065101507988 1000 -1038.6516119470211
410.2366394953765 1000 -990.3988588520992
632.7944954093265 1000 -947.0438884125992
881.7621561396245 1000 -881.762156139625
1198.9791809402702 1000 -801.1322760142664
1674.993592442963 1000 -693.8050628779074
2193.035886981623 1000 -436.2219600280638
2158.0 1000 -5.285575585119976e-13
2120.0 1250 0.0
2060.629874127187 1250 409.88476655588545
1962.320127053973 1250 812.8196103434507
1867.4807492315167 1250 1247.8107433620264
1557.0491321727777 1250 1557.0491321727777
892.2457942294812 1250 1335.3401973578877
531.9299709874749 1250 1284.1925501906885
241.52181865596688 1250 1214.2121771391992
7.102951435054649e-14 1250 1160.0
-221.62260581032163 1250 1114.1720785380699
-438.93789692275794 1250 1059.6898237904459
-658.3507261282288 1250 985.291490578516
-679.5296167202721 1250 679.5296167202722
-613.6245738792785 1250 410.0108319684664
-582.967985014622 1250 241.47324582237172
-545.3166159041962 1250 108.47021904096727
-522.0 1250 6.392656291549184e-14
-496.2773518840346 1250 -98.71570294016095
-478.5695978408466 1250 -198.23001796511645
-451.48799948028204 1250 -301.67463652964403
-423.5569619307421 1250 -423.5569619307419
-378.89889891936866 1250 -567.0622755903358
-321.0713997543101 1250 -775.1349277769697
-209.91718648935444 1250 -1055.3249617138758
-1.9343296192532443e-13 1250 -1053.0
201.3332123206444 1250 -1012.1704093761338
399.90418682151903 1250 -965.4541114742946
618.9052395838364 1250 -926.2571481050356
860.5489527040281 1250 -860.5489527040286
1173.2036229588914 1250 -783.9095987906587
1541.9549397613378 1250 -638.6986486173345
2175.3817519343647 1250 -432.7103342317735
2158.0 1250 -5.285575585119976e-13
2120.0 1500 0.0
2054.7451624447676 1500 408.71422462378865
1964.1678861189955 1500 813.5849772081809
1856.6716442715835 1500 1240.5883303327716
1530.8861812688756 1500 1530.8861812688756
906.1350500549713 1500 1356.1269376654514
525.4243526372684 1500 1268.4865981379967
239.5709154358056 1500 1204.404324335167
7.115197903046122e-14 1500 1162.0
-220.25697355620872 1500 1107.3065815752473
-435.4937460314721 1500 1051.3749079978443
-654.4617344970915 1500 979.4712032923982
-662.5590539717949 1500 662.559053971795
-626.0966180638167 1500 418.34438546376043
-575.5769487545316 1500 238.411778363451
-549.239757025809 1500 109.25058032903178
-519.0 1500 6.355916887574763e-14
-493.3349960428249 1500 -98.13043197411257
-476.72183877582404 1500 -197.46465110038628
-451.48799948028204 1500 -301.67463652964403
-419.31432124362277 1500 -419.31432124362266
-382.2323203174863 1500 -572.0510932641512
-312.26968080991304 1500 -753.8856985292101
-213.0386316416125 1500 -1071.0175262003274
-1.9508623510417334e-13 1500 -1062.0
203.2841155408057 1500 -1021.9782621801661
404.49638800990016 1500 -976.5406658644299
617.7940991177973 1500 -924.5942088804305
870.4484476406398 1500 -870.4484476406402
1160.7315787743532 1500 -775.5760452953647
1580.7578801268119 1500 -654.7713527766682
2187.1511752992037 1500 -435.05141809596705
2168.0 1500 -5.310068521102923e-13
2128.0 1750 0.0
2053.7643771643643 1750 408.51913430177257
1965.0917656515069 1750 813.967660640546
1855.840174659281 1750 1240.032760099752
1520.9866863322638 1750 1520.9866863322638
898.9126370257165 1750 1345.3178327055182
520.4494680165221 1750 1256.4761642153499
240.74145736790237 1750 1210.2890360175863
7.060088797084491e-14 1750 1153.0
-218.50116065806358 1750 1098.479514051618
-432.4322785725514 1750 1043.983871737754
-650.5727428659543 1750 973.6509160062803
-702.1570337182417 1750 702.1570337182418
-622.7707396146064 1750 416.12210453168206
-575.5769487545316 1750 238.411778363451
-547.2781864650026 1750 108.86039968499952
-517.0 1750 6.331423951591816e-14
-493.3349960428249 1750 -98.13043197411257
-476.72183877582404 1750 -197.46465110038628
-448.1621210310719 1750 -299.45235559756566
-420.0214280248093 1750 -420.0214280248092
-383.8990310165451 1750 -574.5455021010588
-313.8004145393734 1750 -757.5812166592552
-213.23372196362862 1750 -1071.9983114807308
-1.9600472020353387e-13 1750 -1067.0
203.47920586282183 1750 -1022.9590474605693
406.0271217393605 1750 -980.2361839944751
619.4608098168561 1750 -927.0886177173381
876.8124086713187 1750 -876.8124086713191
1169.0462748973787 1750 -781.1317476255607
1585.3772777893682 1750 -656.6847699384937
2174.4009666539614 1750 -432.5152439097574
2165.0 1750 -5.302720640308039e-13
2120.0 200 0.0
2048.8604507623486 200 407.5436826916919
1961.3962475214616 200 812.4369269110856
1857.503113883886 200 1241.1439005657912
1535.1288219559947 200 1535.1288219559947
877.8009681709716 200 1313.7219874380214
519.3014177194269 200 1253.7045256178162
236.64456060556367 200 1189.6925451291186
6.943747351165493e-14 200 1134.0
-215.9649864718539 200 1085.7293054063762
-427.4573939518052 200 1031.9734378151072
-639.4613382055622 200 957.0215237602295
-692.9646455628165 200 692.9646455628166
-617.7819219407912 200 412.7886831335644
-585.7396236121558 200 242.621296119467
-545.3166159041962 200 108.47021904096727
-521.0 200 6.38040982355771e-14
-491.37342548201843 200 -97.74025133008031
-474.8740797108014 200 -196.69928423565608
-451.48799948028204 200 -301.67463652964403
-422.142748368369 200 -422.1427483683688
-377.7877584533295 200 -565.3993363657307
-320.688716321945 200 -774.2110482444584
-213.81899292967702 200 -1074.9406673219405
-1.9876017550161542e-13 200 -1082.0
206.99083165911213 200 -1040.6131825078276
411.0020063601067 200 -992.2466179171219
632.7944954093265 200 -947.0438884125992
878.9337290148784 200 -878.9337290148787
1199.8106505525727 200 -801.687846247286
1652.8204836626921 200 -684.6206605011453
2185.189604738397 200 -434.66123745193477
2157.0 200 -5.283126291521682e-13
2121.0 200 0.0
2049.8412360427515 200 407.73877301370806
1966.9395247165294 200 814.7330275052761
1848.356948148558 200 1235.0326280025756
1420.577523403774 200 1420.577523403774
838.9110518595994 200 1255.5191145768433
487.1560094007594 200 1176.098644886868
222.98823806443468 200 1121.0375755008924
6.62533918338718e-14 200 1082.0
-205.6251994049991 200 1033.747685545005
-408.32322233355075 200 985.779461189543
-613.9051074866605 200 918.7739215943124
-703.5712472806147 200 703.5712472806148
-628.5910269007243 200 420.01109616281923
-575.5769487545316 200 238.411778363451
-548.2589717454058 200 109.05549000701565
-521.0 200 6.38040982355771e-14
-492.3542107624217 200 -97.93534165209644
-477.6457183083353 200 -197.84733453275135
-452.3194690925846 200 -302.23020676266367
-416.48589411887656 200 -416.48589411887644
-331.6754291127025 200 -496.38735854461953
-255.2498493875147 200 -616.2276481850283
-205.62519940499962 200 -1033.7476855450047
-1.9545362914391755e-13 200 -1064.0
213.81899292967663 200 -1074.9406673219405
431.6669117078215 200 -1042.1361126727313
661.1285772933262 200 -989.4488386400291
931.9667376038694 200 -931.9667376038699
1239.721191943095 200 -828.3552174322268
1716.568171405971 200 -711.0258173343364
2210.6900220288812 200 -439.7335858243541
2158.0 200 -5.285575585119976e-13
2122.0 2500 0.0
2053.7643771643643 2500 408.51913430177257
1960.4723679889505 2500 812.0542434787205
1845.8625393116504 2500 1233.3659173035169
1494.8237354283615 2500 1494.8237354283615
824.4662258010898 2500 1233.9009046569772
492.1308940215055 2500 1188.1090788095148
226.499863860725 2500 1138.6917105481505
6.698817991336021e-14 2500 1094.0
-207.18592198112813 2500 1041.5939677882307
-413.2981069542969 2500 997.7898951121897
-629.4610740112093 2500 942.0550707387836
-678.115403157899 2500 678.1154031578991
-631.0854357376319 2500 421.677806861878
-579.2724668845768 2500 239.94251209291136
-550.2205423062122 2500 109.4456706510479
-520.0 2500 6.368163355566237e-14
-489.411854921212 2500 -97.35007068604806
-476.72183877582404 2500 -197.46465110038628
-450.65652986797954 2500 -301.11906629662445
-416.48589411887656 2500 -416.48589411887644
-381.1211798514471 2500 -570.3881540395461
-324.898234077961 2500 -784.3737231020825
-223.1833283864512 2500 -1122.0183607812955
-2.1143526987279052e-13 2500 -1151.0
220.84224452225723 2500 -1110.2489374164568
439.3205803551233 2500 -1060.613703322957
677.7956842839143 2500 -1014.3929270091055
946.1088732276004 2500 -946.1088732276008
1287.9464294566426 2500 -860.5782909473638
1725.8069667310838 2500 -714.8526516579873
2217.5555189917036 2500 -441.09921807846706
2164.0 2500 -5.300271346709744e-13
2120.0 2750 0.0
2051.802806603558 2750 408.1289536577403
1959.5484884564391 2750 811.6715600463555
1859.9975227207938 2750 1242.81061126485
1574.019694921255 2750 1574.019694921255
7.777983262274432 2750 11.640574572235634
546.4719414173483 2750 1319.2999724261174
246.98434767241847 2750 1241.6741649904898
7.237662582960857e-14 2750 1182.0
-223.5735090304829 2750 1123.979931342102
-449.6530330289804 2750 1085.558450700762
-667.2398498565424 2750 998.5950043753567
-735.3910524340093 2750 735.3910524340095
-621.1078003900013 2750 415.01096406564284
-583.8918645471332 2750 241.85592925473682
-545.3166159041962 2750 108.47021904096727
-522.0 2750 6.392656291549184e-14
-491.37342548201843 2750 -97.74025133008031
-480.41735690586916 2750 -198.99538482984664
-448.99359064337443 2750 -300.00792583058524
-422.142748368369 2750 -422.1427483683688
-377.7877584533295 2750 -565.3993363657307
-319.5406660248497 2750 -771.4394096469246
-229.81639933499957 2750 -1155.3650603150054
-2.1272114901189523e-13 2750 -1158.0
218.89134130209595 2750 -1100.4410846124244
433.1976454372819 2750 -1045.8316308027765
668.9065605556007 2750 -1001.0894132122647
926.309883354377 2750 -926.3098833543775
1253.0247057399356 2750 -837.2443411605404
1803.412847462032 2750 -746.9980599766549
2205.786095626865 2750 -438.75813421427347
2160.0 2750 -5.290474172316565e-13
2116.0 2750 0.0
2052.7835918839614 2750 408.3240439797564
1961.3962475214616 2750 812.4369269110856
1864.986340394609 2750 1246.1440326629677
1610.0821407617689 2750 1610.0821407617689
831.1330685973251 2750 1243.8785400046077
510.49969877502986 2750 1232.4552963700564
246.20398638435395 2750 1237.7510238688767
7.537701048751958e-14 2750 1231.0
-247.1794379944344 2750 1242.6549502708929
-486.77332596839415 2750 1175.1747653543566
-502.79106088274006 2750 752.4799991338033
-516.1879502661797 2750 516.1879502661798
-512.185281178368 2750 342.23126354007496
-512.7531405437642 2750 212.3893049626249
-508.04677524887336 2750 101.05678680435439
-505.0 2750 6.184466335694134e-14
-504.12363412726046 2750 -100.27642551628998
-509.05762241371906 2750 -210.8585712331644
-501.37617621843475 2750 -335.0088505108202
-500.63160108007577 2750 -500.6316010800756
-471.12355760062263 2750 -705.0862312325584
-450.41839989371033 2750 -1087.4062097657845
-225.13423160661247 2750 -1131.8262135853279
-2.0574066225675533e-13 2750 -1120.0
223.76859935249917 2750 -1124.9607166225053
461.8989028646636 2750 -1115.122595741123
746.1308229453252 2750 -1116.6636893223185
1559.8775592975235 2750 -1559.8775592975242
1855.840174659281 2750 -1240.032760099752
1998.3514288219135 2750 -827.7442642056888
2059.649088846784 2750 -409.68967623387033
2098.0 2750 -5.138617969222294e-13
2108.0 3000 0.0
2128.30405847501 3000 423.3459987749983
2101.825936463177 3000 870.6048086305792
1246.3729488415154 3000 832.7997792963837
978.6357851621818 3000 978.6357851621818
717.7967410613262 3000 1074.2587390948884
472.99672240325106 3000 1141.9151021839505
244.83835413024104 3000 1230.885526906054
7.849985982534534e-14 3000 1282.0
-204.8448381169346 3000 1029.824544423392
-302.3199115684209 3000 729.8648306839166
-360.5650812297219 3000 539.6237783843518
-406.5863991822648 3000 406.58639918226487
-441.5103641326516 3000 295.00779373340873
-471.17856158075625 3000 195.16855050619586
-498.2389224448411 3000 99.10588358419311
-540.0 3000 6.613092715395707e-14
-570.8170331946801 3000 -113.5425674133867
-620.8470458475848 3000 -257.1632665493403
-660.1868721682209 3000 -441.12276501756423
-801.1519830843586 3000 -801.1519830843582
-649.4616023999149 3000 -971.9879767816753
-431.666911707821 3000 -1042.1361126727315
-219.2815219461286 3000 -1102.4026551732309
-2.1566030132984887e-13 3000 -1174.0
247.5696186384668 3000 -1244.6165208316995
546.8546248497136 3000 -1320.2238519586285
1213.92095914783 3000 -1816.7611028810618
1575.4339084836274 3000 -1575.4339084836283
1830.8960862902047 3000 -1223.365653109164
1974.33056097662 3000 -817.7944949641964
2072.3992974920257 3000 -412.22585042008
2098.0 3000 -5.138617969222294e-13
2115.0 3250 0.0
2109.669138147349 3250 419.6392826566919
2050.0886826425453 3250 849.1745364181343
1877.4583845791472 3250 1254.4775861582618
1224.0018382339138 3250 1224.0018382339138
789.4653011208549 3250 1181.5183190819168
488.6867431302197 3250 1179.7941630169132
231.3771219111282 3250 1163.2113425582313
7.078458499071702e-14 3250 1156.0
-227.28022514878936 3250 1142.6148516697635
-465.7257371883142 3250 1124.361391066236
-585.0154553696412 3250 875.53750175458
-543.0580079512685 3250 543.0580079512686
-543.7811264458646 3250 363.3429323948198
-527.5352130639448 3250 218.51223988046632
-519.8161986137121 3250 103.39787066854792
-506.0 3250 6.196712803685607e-14
-505.10441940766367 3250 -100.4715158383061
-496.12330895856104 3250 -205.50100318005315
-488.07266242159403 3250 -326.1197267825065
-468.10468914549455 3250 -468.10468914549443
-448.34517804681894 3250 -670.995977128154
-430.9015448430908 3250 -1040.288353607709
-229.42621869096732 3250 -1153.4034897541987
-2.0757763245547635e-13 3250 -1130.0
221.8176961323379 3250 -1115.152863818473
461.13353599993343 3250 -1113.2748366761004
728.352575488698 3250 -1090.056661728637
1509.6729778332785 3250 -1509.6729778332792
1849.1884177608606 3250 -1235.5881982355952
2069.4901528252826 3250 -857.2108884978006
2185.189604738397 3250 -434.66123745193477
2172.0 3250 -5.319865695496102e-13
2127.0 3500 0.0
2062.5914446879938 3500 410.27494719991773
1947.5380545337925 3500 806.6966754256092
1842.5366608624402 3500 1231.1436363714383
1508.2587642709059 3500 1508.2587642709059
870.5785551417168 3500 1302.9128824780885
500.5499295335375 3500 1208.434428524763
232.35257352120885 3500 1168.1152689602475
6.784543267276337e-14 3500 1108.0
-209.52700584532167 3500 1053.3633911530694
-414.0634738190271 3500 999.6376541772122
-623.3498014479937 3500 932.9089050034556
-727.6128778409574 3500 727.6128778409575
-637.7371926360523 3500 426.1223687260349
-597.750575348025 3500 247.59618074021316
-551.2013275866155 3500 109.64076097306403
-521.0 3500 6.38040982355771e-14
-495.2965666036314 3500 -98.52061261814482
-473.9502001782902 3500 -196.316600803291
-444.00477296955916 3500 -296.67450443246764
-414.36457377531696 3500 -414.3645737753168
-367.78749425897666 3500 -550.432883344285
-308.06016305389704 3500 -743.7230236715859
-215.96498647185444 3500 -1085.729305406376
-2.1272114901189523e-13 3500 -1158.0
217.52570904798307 3500 -1093.5755876496019
428.9881276812659 3500 -1035.6689559451522
657.7951558952086 3500 -984.4600209662138
917.1174951989519 3500 -917.1174951989524
1205.6309378386907 3500 -805.5768378784231
1589.0727959194135 3500 -658.2155036679541
2167.535469691139 3500 -431.1496116556445
2247.0 3500 -5.503562715368205e-13
2206.0 3500 0.0
2078.284009174445 3500 413.3963923521758
1932.7559820136119 3500 800.5737405077679
1783.5023183889596 3500 1191.6981498270466
1559.1704525163375 3500 1559.1704525163375
891.1346537634421 3500 1333.6772581332825
503.9940804248233 3500 1216.7493443173646
220.06188323419275 3500 1106.325796294844
6.282438079625922e-14 3500 1026.0
-190.9934252537895 3500 960.1887895147626
-365.84536134102575 3500 883.2288330807901
-541.6809771941122 3500 810.6828719949815
-722.6631303726515 3500 722.6631303726516
-769.1093913798544 3500 513.902465543132
-664.2693838756152 3500 275.14938787049965
-589.4519535223415 3500 117.24928353169302
-547.0 3500 6.698817991336021e-14
-503.1428488468572 3500 -100.08133519427385
-465.6352843856886 3500 -192.87244991200518
-430.70125917271844 3500 -287.78538070415397
-386.7874093090416 3500 -386.78740930904144
-337.2311314428985 3500 -504.702054667645
-273.2359707086739 3500 -659.6499862130588
-170.70403176411259 3500 -858.1871203528266
-2.285190927208961e-13 3500 -1244.0
240.7414573679023 3500 -1210.2890360175863
463.429636594124 3500 -1118.8181138711682
691.1293698763847 3500 -1034.3481977043666
933.3809511662425 3500 -933.380951166243
1221.428860472439 3500 -816.1326723057956
1528.0967467736684 3500 -632.9583971318581
2041.9949537995255 3500 -406.17805043758
2265.0 3500 -5.5476500013751e-13
2284.0 3500 0.0
2166.554684410736 3500 430.9545213336273
1953.0813317288603 3500 808.9927760197997
1737.7714897123196 3500 1161.1417870109685
1520.2795795510772 3500 1520.2795795510772
1226.1435042742623 3500 1835.0534343517174
604.639823136842 3500 1459.7296613678332
256.73886377322486 3500 1290.7134290106512
6.998856457127124e-14 3500 1143.0
-206.40556069306362 3500 1037.6708266666178
-384.2141660945501 3500 927.5750506413319
-545.0143985922299 3500 815.6716896687967
-709.9352083112936 3500 709.9352083112938
-873.0430929176727 3500 583.3487446705823
-813.9378681424436 3500 337.1441039136442
-679.6841993194387 3500 135.1975931571768
-599.0 3500 7.335634326892645e-14
-529.6240514177445 3500 -105.34877388870932
-473.02632064577887 3500 -195.9339173709259
-417.3977453758777 3500 -278.89625697584034
-365.5742058734452 3500 -365.574205873445
-305.00805792776157 3500 -456.4768171540973
-234.58494403979986 3500 -566.3381534294189
-138.9043092754836 3500 -698.3191196471
-1.6569471192463688e-13 3500 -902.0
240.35127672387006 3500 -1208.32746545678
459.220118838108 3500 -1108.6554390135439
660.5730070603066 3500 -988.6173690277266
861.2560594852147 3500 -861.2560594852151
1074.2587390948884 3500 -717.796741061326
1264.7910800079517 3500 -523.8936189078076
1406.4460920982324 3500 -279.75952177112856
1636.0 3500 -4.0070443268101396e-13
2231.0 3750 0.0
2207.7476661876717 3750 439.1483148583047
1970.6350428465746 3750 816.2637612347365
1736.1085504877144 3750 1160.0306465449294
1504.0161235837868 3750 1504.0161235837868
1245.0328921969287 3750 1863.3234011700038
727.8638883584009 3750 1757.2188708364674
282.68587660136996 3750 1421.157871304281
7.598933388709326e-14 3750 1241.0
-222.59805742040226 3750 1119.076004940086
-410.6193229277413 3750 991.3227383846107
-582.2376042045432 3750 871.3801536930673
-750.9474016201134 3750 750.9474016201135
-913.7851039204974 3750 610.5716860885428
-864.7512424305644 3750 358.1916926937241
-702.242260768713 3750 139.68467056354777
-614.0 3750 7.519331346764748e-14
-538.4511189413735 3750 -107.10458678685447
-479.49347737335785 3750 -198.61270139748154
-419.0606846004828 3750 -280.00739744187956
-366.2813126546317 3750 -366.28131265463156
-301.1190662966244 3750 -450.65652986797954
-228.46200912195843 3750 -551.5560809092383
-132.85650929298362 3750 -667.9147759545998
-1.557750728515433e-13 3750 -848.0
221.2324251662895 3750 -1112.2105079772632
438.9378969227582 3750 -1059.6898237904459
624.4609419140324 3750 -934.5718442280611
801.1519830843581 3750 -801.1519830843586
969.4935679447677 3750 -647.7948917008562
1128.9807887287925 3750 -467.63915435013945
1313.2714904599254 3750 -261.22594117959636
1528.0 3750 -3.742520618194311e-13
2260.0 0 0.0
2115.553849829768 0 420.8098245887886
1941.9947773387248 0 804.4005748314187
1745.2547162230424 0 1166.141919108145
1549.9780643609122 0 1549.9780643609122
1335.0352699461043 0 1998.0214783630163
998.0383916081543 0 2409.477820789436
336.1406248337891 0 1689.8930381347661
8.854196357835364e-14 0 1446.0
-274.1019024326601 0 1378.0033189665387
-526.1897195019984 0 1270.3343572030192
-771.6870536642276 0 1154.911291488235
-993.4850275670992 0 993.4850275670993
-861.402518345437 0 575.5707614083078
-718.7782762937811 0 297.7277103800399
-626.7217941776643 0 124.6627157683059
-568.0 0 6.955993819156967e-14
-513.9314869312927 0 -102.22732873645126
-472.10244111326756 0 -195.5512339385608
-424.8809718866006 0 -283.8963890730168
-374.76659402887026 0 -374.76659402887014
-325.0085863164673 0 -486.409723196989
-252.95374879332417 0 -610.6843709899606
-154.31644471475778 0 -775.8011567989552
-1.9637211424327808e-13 0 -1069.0
276.8331669408861 0 -1391.7343128921839
533.0780212845704 0 -1286.9641887882224
776.6871857614034 0 -1162.3945179989585
1026.7190462828667 0 -1026.7190462828673
1279.6317333336171 0 -855.0225886171678
1504.075878928375 0 -623.0086278903658
1695.7777498171852 0 -337.3111667658866
1970.0 0 -4.825108388640572e-13
2116.0 -200 0.0
2043.9565243603322 -200 406.56823108161126
1958.6246089239278 -200 811.2888766139903
1869.1436884561217 -200 1248.9218838280658
1759.2816715921304 -200 1759.2816715921304
1503.9286207840635 -200 2250.78824050299
620.3298438638107 -200 1497.608722200796
292.6354830241925 -200 1471.1779206048457
9.01340044172452e-14 -200 1472.0
-282.88096692338587 -200 1422.1386565846842
-570.1983142239837 -200 1376.5805034418172
-751.686525275522 -200 1124.9783854453435
-647.7098115668774 -200 647.7098115668775
-598.6581208578326 -200 400.01056777411355
-575.5769487545316 -200 238.411778363451
-541.3934747825832 -200 107.68985775290275
-521.0 -200 6.38040982355771e-14
-493.3349960428249 -200 -98.13043197411257
-484.1128750359143 -200 -200.52611855930698
-456.4768171540973 -200 -305.0080579277617
-432.74935008616717 -200 -432.74935008616706
-397.7882868420352 -200 -595.3322424086224
-329.8731186987072 -200 -796.3841570247292
-252.83705733290276 -200 -1271.0977234025866
-2.531344933837579e-13 -200 -1378.0
265.3228379419345 -200 -1333.8679813483934
531.54728755511 -200 -1283.2686706581771
818.3549532378735 -200 -1224.7547389216495
1168.1404025201762 -200 -1168.1404025201768
1566.4887495779951 -200 -1046.6943190089305
2161.8781060764113 -200 -895.4792317343096
2245.0175068429944 -200 -446.56174709491864
2135.0 -200 -5.229241832359198e-13
