181.0 0 0.0
182.42606215500086 0 36.28679989499985
177.38487024216704 0 73.47521901409723
169.61980090971923 0 113.33632753599885
145.6639969244288 0 145.6639969244288
118.33645963317528 0 177.10302742044215
83.42498825558958 0 201.40573808746052
24.58138057403217 0 123.57894533080703
5.2659812363336185e-15 0 86.0
-15.021954795241871 0 75.52046659104874
-32.91077518339772 0 79.45363979597066
-50.00132097176421 0 74.83226510722906
-54.44722215136415 0 54.447222151364166
-49.88817673815272 0 33.334213981176134
-51.737253820632056 0 21.430272212445033
-49.039264020161525 0 9.754516100806407
-41.0 0 5.021051876504148e-15
-39.23141121612922 0 -7.803612880645135
-46.19397662556434 0 -19.134171618254484
-49.888176738152715 0 -33.334213981176134
-44.547727214752506 0 -44.54772721475249
-47.77904003968579 0 -71.5063866580189
-40.1817603983344 0 -97.00735091368512
-20.28939348967738 0 -102.00166916193595
-1.8002307947466092e-14 0 -98.0
19.50903220161283 0 -98.07852804032305
40.56444383069954 0 -97.93123044619638
66.11285772933262 0 -98.9448838640029
102.53048327204937 0 -102.53048327204941
156.3162871128785 0 -104.44720380768521
181.0803883722122 0 -75.00595274355756
180.46449159419439 0 -35.89661925096768
182.0 0 -4.457714348896366e-14
180.0 100 0.0
180.46449159419439 100 35.896619250967596
182.92814743723477 100 75.77131960828778
170.4512705220218 100 113.89189776901844
147.0782104868019 100 147.0782104868019
120.00317033223409 100 179.59743625734978
83.42498825558958 100 201.40573808746052
24.971561218064426 100 125.5405158916135
5.572142936120457e-15 100 91.0
-15.412135439274127 100 77.48203715185521
-33.67614204812789 100 81.30139886099323
-50.55689120478381 100 75.6637347195316
-51.61879502661797 100 51.618795026617974
-54.04552479966545 100 36.11206514627414
-51.737253820632056 100 21.430272212445033
-50.02004930056475 100 9.949606422822537
-42.0 100 5.143516556418883e-15
-41.19298177693568 100 -8.19379352467739
-46.19397662556434 100 -19.134171618254484
-49.888176738152715 100 -33.334213981176134
-45.25483399593905 100 -45.25483399593904
-45.55675910760738 100 -68.1805082088087
-40.94712726306458 100 -98.85510997870769
-19.899212845645124 100 -100.04009860112949
-1.781861092759399e-14 100 -97.0
19.50903220161283 100 -98.07852804032305
40.94712726306463 100 -98.85510997870767
67.22399819537182 100 -100.607823088608
101.82337649086281 100 -101.82337649086287
153.82187827597087 100 -102.7804931086264
181.0803883722122 100 -75.00595274355756
181.4452768745976 100 -36.09170957298382
181.0 100 -4.4332214129134187e-14
182.0 200 0.0
184.3876327158073 200 36.67698053903211
182.92814743723477 200 75.77131960828778
170.4512705220218 200 113.89189776901844
147.0782104868019 200 147.0782104868019
120.5587405652537 200 180.4289058696523
83.42498825558958 200 201.40573808746052
25.55683218411281 200 128.48287173282318
5.3884459162483544e-15 200 88.0
-14.631774151209614 200 73.55889603024228
-34.82419234522317 200 84.0730374585271
-51.66803167082301 200 77.3266739441367
-51.61879502661797 200 51.618795026617974
-55.70846402427054 200 37.22320561231334
-50.81337428812077 200 21.047588780079945
-49.039264020161525 200 9.754516100806407
-40.0 200 4.898587196589413e-15
-40.21219649653245 200 -7.998703202661263
-48.04173569058692 200 -19.899538482984664
-49.05670712585017 200 -32.77864374815653
-45.9619407771256 200 -45.961940777125584
-48.33461027270539 200 -72.33785627032144
-39.799076965969306 200 -96.08347138117384
-19.704122523628996 200 -99.05931332072626
-1.781861092759399e-14 200 -97.0
19.50903220161283 200 -98.07852804032305
39.79907696596936 200 -96.08347138117381
66.11285772933262 200 -98.9448838640029
101.11626970967627 200 -101.11626970967632
154.6533478882734 200 -103.33606334164601
180.15650883970093 200 -74.62326931119246
185.36841799621052 200 -36.87207086104833
181.0 200 -4.4332214129134187e-14
